ply
format ascii 1.0
comment VCGLIB generated
element vertex 1163
property float x
property float y
property float z
property float nx
property float ny
property float nz
property uchar red
property uchar green
property uchar blue
property uchar alpha
element face 0
property list uchar int vertex_indices
end_header
-0.066 0.046 -0.006 0 0 0 145 150 87 255 
-0.064 0.047 -0.006 0 0 0 143 148 84 255 
-0.062 0.047 -0.006 0 0 0 143 150 86 255 
-0.06 0.048 -0.005 0 0 0 144 152 85 255 
-0.059 0.05 -0.005 0 0 0 141 149 82 255 
-0.057 0.049 -0.006 0 0 0 141 149 82 255 
-0.055 0.048 -0.006 0 0 0 140 148 80 255 
-0.053 0.048 -0.007 0 0 0 143 151 83 255 
-0.051 0.05 -0.006 0 0 0 142 150 83 255 
-0.05 0.05 -0.006 0 0 0 138 146 79 255 
-0.048 0.051 -0.006 0 0 0 140 148 81 255 
-0.046 0.051 -0.006 0 0 0 138 146 78 255 
-0.044 0.052 -0.005 0 0 0 143 149 81 255 
-0.043 0.054 -0.005 0 0 0 140 146 76 255 
-0.041 0.054 -0.005 0 0 0 139 145 75 255 
-0.039 0.054 -0.005 0 0 0 142 148 78 255 
-0.037 0.054 -0.005 0 0 0 141 147 77 255 
-0.035 0.053 -0.006 0 0 0 138 144 76 255 
-0.033 0.052 -0.007 0 0 0 138 146 79 255 
-0.032 0.054 -0.006 0 0 0 137 144 80 255 
-0.03 0.054 -0.006 0 0 0 137 144 81 255 
-0.028 0.055 -0.006 0 0 0 136 143 80 255 
-0.027 0.056 -0.006 0 0 0 137 144 80 255 
-0.025 0.057 -0.005 0 0 0 140 145 81 255 
-0.023 0.058 -0.004 0 0 0 136 143 79 255 
-0.021 0.059 -0.004 0 0 0 135 142 78 255 
-0.02 0.059 -0.004 0 0 0 143 148 82 255 
-0.018 0.058 -0.005 0 0 0 142 148 80 255 
-0.016 0.058 -0.006 0 0 0 142 148 80 255 
-0.014 0.059 -0.005 0 0 0 141 147 79 255 
-0.013 0.061 -0.004 0 0 0 145 151 83 255 
-0.011 0.062 -0.004 0 0 0 143 151 83 255 
-0.009 0.062 -0.004 0 0 0 144 152 85 255 
-0.007 0.061 -0.005 0 0 0 145 153 86 255 
-0.005 0.061 -0.005 0 0 0 143 151 84 255 
-0.003 0.061 -0.006 0 0 0 144 152 85 255 
-0.002 0.061 -0.006 0 0 0 149 157 90 255 
0 0.063 -0.005 0 0 0 149 157 90 255 
0.001 0.064 -0.004 0 0 0 154 162 98 255 
0.002 0.065 -0.004 0 0 0 156 164 97 255 
0.004 0.065 -0.004 0 0 0 156 164 97 255 
0.006 0.066 -0.004 0 0 0 146 153 89 255 
0.008 0.065 -0.005 0 0 0 151 159 92 255 
0.01 0.065 -0.005 0 0 0 156 164 96 255 
0.011 0.066 -0.005 0 0 0 159 167 104 255 
0.013 0.067 -0.004 0 0 0 162 169 111 255 
0.015 0.069 -0.004 0 0 0 165 171 115 255 
0.017 0.068 -0.004 0 0 0 164 172 119 255 
0.019 0.068 -0.005 0 0 0 172 180 127 255 
0.021 0.067 -0.005 0 0 0 179 188 141 255 
0.022 0.068 -0.005 0 0 0 178 188 143 255 
0.024 0.068 -0.006 0 0 0 179 189 144 255 
0.026 0.068 -0.006 0 0 0 178 190 145 255 
0.028 0.069 -0.005 0 0 0 182 194 151 255 
0.03 0.069 -0.006 0 0 0 184 196 155 255 
0.031 0.069 -0.006 0 0 0 187 199 158 255 
0.033 0.069 -0.006 0 0 0 186 199 160 255 
0.035 0.07 -0.006 0 0 0 186 199 162 255 
0.037 0.069 -0.007 0 0 0 185 198 161 255 
0.039 0.069 -0.007 0 0 0 187 200 161 255 
0.041 0.069 -0.007 0 0 0 185 198 159 255 
0.042 0.071 -0.006 0 0 0 185 198 159 255 
0.044 0.071 -0.007 0 0 0 185 196 157 255 
0.046 0.073 -0.005 0 0 0 184 197 158 255 
0.048 0.073 -0.005 0 0 0 185 198 161 255 
0.049 0.074 -0.005 0 0 0 185 198 159 255 
0.051 0.073 -0.006 0 0 0 186 199 162 255 
0.053 0.074 -0.006 0 0 0 187 200 163 255 
0.055 0.074 -0.006 0 0 0 189 202 165 255 
0.057 0.074 -0.006 0 0 0 191 204 167 255 
0.058 0.075 -0.006 0 0 0 190 203 164 255 
0.06 0.076 -0.005 0 0 0 191 204 165 255 
0.062 0.077 -0.005 0 0 0 191 204 165 255 
0.064 0.077 -0.005 0 0 0 190 203 164 255 
0.065 0.077 -0.005 0 0 0 192 205 168 255 
0.067 0.079 -0.005 0 0 0 191 203 168 255 
0.069 0.079 -0.005 0 0 0 194 206 171 255 
0.071 0.078 -0.006 0 0 0 191 205 172 255 
0.073 0.078 -0.006 0 0 0 188 202 167 255 
0.074 0.08 -0.005 0 0 0 187 202 165 255 
-0.263 0.014 0 0 0 0 175 181 136 255 
-0.261 0.014 0 0 0 0 178 184 139 255 
-0.26 0.014 0 0 0 0 181 187 141 255 
-0.258 0.013 -0.001 0 0 0 178 184 138 255 
-0.257 0.013 -0.001 0 0 0 176 182 136 255 
-0.255 0.013 -0.001 0 0 0 173 179 133 255 
-0.252 0.017 0 0 0 0 169 176 127 255 
-0.25 0.02 0.001 0 0 0 171 176 127 255 
-0.248 0.022 0.002 0 0 0 167 172 123 255 
-0.246 0.023 0.003 0 0 0 163 167 121 255 
-0.243 0.027 0.005 0 0 0 166 170 124 255 
-0.241 0.031 0.007 0 0 0 153 151 107 255 
-0.239 0.035 0.009 0 0 0 73 37 2 255 
-0.236 0.04 0.012 0 0 0 89 44 14 255 
-0.233 0.045 0.015 0 0 0 75 30 0 255 
-0.23 0.05 0.018 0 0 0 100 53 23 255 
-0.228 0.053 0.019 0 0 0 101 52 21 255 
-0.227 0.053 0.019 0 0 0 100 51 20 255 
-0.224 0.056 0.021 0 0 0 95 46 16 255 
-0.222 0.058 0.022 0 0 0 94 46 20 255 
-0.22 0.063 0.025 0 0 0 82 40 16 255 
-0.218 0.065 0.026 0 0 0 68 31 10 255 
-0.216 0.069 0.028 0 0 0 23 17 0 255 
-0.214 0.068 0.027 0 0 0 18 15 0 255 
-0.213 0.067 0.026 0 0 0 20 13 0 255 
-0.212 0.067 0.026 0 0 0 16 11 0 255 
-0.21 0.066 0.025 0 0 0 15 11 0 255 
-0.209 0.064 0.024 0 0 0 17 13 2 255 
-0.208 0.062 0.022 0 0 0 18 15 1 255 
-0.207 0.059 0.02 0 0 0 15 12 0 255 
-0.205 0.059 0.02 0 0 0 11 7 0 255 
-0.204 0.058 0.019 0 0 0 15 11 1 255 
-0.202 0.058 0.019 0 0 0 16 11 4 255 
-0.201 0.056 0.017 0 0 0 14 11 5 255 
-0.199 0.059 0.019 0 0 0 14 11 5 255 
-0.198 0.059 0.019 0 0 0 16 11 5 255 
-0.196 0.059 0.018 0 0 0 18 13 7 255 
-0.195 0.055 0.016 0 0 0 16 11 5 255 
-0.194 0.054 0.015 0 0 0 19 11 4 255 
-0.193 0.051 0.013 0 0 0 24 14 7 255 
-0.191 0.048 0.011 0 0 0 27 15 6 255 
-0.19 0.045 0.008 0 0 0 33 19 10 255 
-0.189 0.043 0.007 0 0 0 37 21 11 255 
-0.188 0.041 0.006 0 0 0 37 20 10 255 
-0.186 0.04 0.005 0 0 0 39 20 10 255 
-0.185 0.038 0.003 0 0 0 39 18 8 255 
-0.183 0.037 0.002 0 0 0 43 22 10 255 
-0.182 0.035 0.001 0 0 0 41 20 8 255 
-0.18 0.034 0 0 0 0 42 21 7 255 
-0.179 0.032 0 0 0 0 38 22 6 255 
-0.177 0.031 -0.001 0 0 0 34 18 2 255 
-0.176 0.031 -0.002 0 0 0 35 21 1 255 
-0.174 0.03 -0.002 0 0 0 47 34 10 255 
-0.172 0.031 -0.002 0 0 0 55 46 16 255 
-0.171 0.031 -0.002 0 0 0 58 50 15 255 
-0.169 0.031 -0.003 0 0 0 65 58 19 255 
-0.167 0.031 -0.003 0 0 0 70 64 20 255 
-0.166 0.032 -0.003 0 0 0 79 73 28 255 
-0.164 0.032 -0.003 0 0 0 84 80 28 255 
-0.162 0.032 -0.003 0 0 0 88 87 31 255 
-0.16 0.032 -0.003 0 0 0 97 96 40 255 
-0.159 0.032 -0.004 0 0 0 101 101 41 255 
-0.157 0.031 -0.004 0 0 0 111 111 49 255 
-0.156 0.03 -0.005 0 0 0 111 113 51 255 
-0.154 0.029 -0.006 0 0 0 116 119 55 255 
-0.152 0.03 -0.006 0 0 0 118 121 57 255 
-0.15 0.031 -0.005 0 0 0 124 129 65 255 
-0.149 0.032 -0.005 0 0 0 127 134 71 255 
-0.147 0.032 -0.005 0 0 0 129 136 72 255 
-0.145 0.031 -0.006 0 0 0 135 142 78 255 
-0.143 0.032 -0.006 0 0 0 139 146 82 255 
-0.142 0.032 -0.006 0 0 0 141 148 84 255 
-0.14 0.034 -0.005 0 0 0 143 148 82 255 
-0.138 0.033 -0.006 0 0 0 140 145 79 255 
-0.136 0.033 -0.006 0 0 0 142 150 83 255 
-0.135 0.032 -0.007 0 0 0 143 151 84 255 
-0.133 0.033 -0.007 0 0 0 139 146 82 255 
-0.131 0.034 -0.006 0 0 0 138 146 79 255 
-0.129 0.035 -0.006 0 0 0 139 146 82 255 
-0.128 0.035 -0.006 0 0 0 139 147 80 255 
-0.126 0.035 -0.006 0 0 0 142 150 83 255 
-0.124 0.035 -0.007 0 0 0 140 148 80 255 
-0.122 0.036 -0.006 0 0 0 143 151 84 255 
-0.121 0.035 -0.007 0 0 0 142 150 83 255 
-0.119 0.037 -0.006 0 0 0 141 149 82 255 
-0.117 0.037 -0.007 0 0 0 144 152 85 255 
-0.115 0.038 -0.006 0 0 0 139 147 79 255 
-0.114 0.037 -0.007 0 0 0 140 148 80 255 
-0.112 0.038 -0.007 0 0 0 139 147 79 255 
-0.11 0.038 -0.007 0 0 0 138 146 78 255 
-0.108 0.038 -0.007 0 0 0 142 148 80 255 
-0.107 0.039 -0.007 0 0 0 137 145 77 255 
-0.105 0.04 -0.007 0 0 0 139 147 80 255 
-0.103 0.04 -0.007 0 0 0 144 152 85 255 
-0.101 0.04 -0.007 0 0 0 144 152 85 255 
-0.1 0.041 -0.007 0 0 0 139 147 80 255 
-0.098 0.04 -0.007 0 0 0 138 146 79 255 
-0.096 0.043 -0.006 0 0 0 139 146 82 255 
-0.094 0.042 -0.007 0 0 0 143 150 86 255 
-0.092 0.043 -0.006 0 0 0 145 153 86 255 
-0.091 0.041 -0.008 0 0 0 143 150 86 255 
-0.089 0.043 -0.007 0 0 0 141 148 84 255 
-0.087 0.043 -0.007 0 0 0 143 150 86 255 
-0.085 0.043 -0.007 0 0 0 143 151 88 255 
-0.084 0.046 -0.006 0 0 0 142 150 87 255 
-0.082 0.047 -0.005 0 0 0 144 152 88 255 
-0.08 0.046 -0.006 0 0 0 142 149 85 255 
-0.078 0.045 -0.007 0 0 0 144 152 85 255 
-0.077 0.046 -0.007 0 0 0 146 151 85 255 
-0.075 0.046 -0.007 0 0 0 144 149 85 255 
-0.073 0.047 -0.006 0 0 0 145 150 86 255 
-0.071 0.048 -0.006 0 0 0 145 150 87 255 
-0.07 0.049 -0.006 0 0 0 141 146 82 255 
-0.068 0.05 -0.005 0 0 0 140 145 81 255 
-0.066 0.05 -0.006 0 0 0 141 146 82 255 
-0.064 0.051 -0.005 0 0 0 146 151 85 255 
-0.063 0.051 -0.006 0 0 0 143 148 82 255 
-0.061 0.052 -0.005 0 0 0 142 150 83 255 
-0.059 0.053 -0.005 0 0 0 146 154 87 255 
-0.057 0.053 -0.005 0 0 0 145 153 86 255 
-0.055 0.052 -0.006 0 0 0 145 153 85 255 
-0.054 0.051 -0.007 0 0 0 147 153 85 255 
-0.052 0.053 -0.006 0 0 0 144 152 85 255 
-0.05 0.054 -0.006 0 0 0 144 152 85 255 
-0.048 0.054 -0.006 0 0 0 142 150 83 255 
-0.047 0.055 -0.006 0 0 0 143 151 83 255 
-0.045 0.055 -0.006 0 0 0 146 152 84 255 
-0.043 0.055 -0.006 0 0 0 144 150 82 255 
-0.041 0.056 -0.006 0 0 0 146 152 82 255 
-0.04 0.057 -0.005 0 0 0 146 152 82 255 
-0.038 0.058 -0.005 0 0 0 141 147 79 255 
-0.036 0.056 -0.006 0 0 0 144 152 84 255 
-0.034 0.056 -0.007 0 0 0 145 153 85 255 
-0.032 0.056 -0.007 0 0 0 146 154 87 255 
-0.031 0.058 -0.006 0 0 0 146 151 85 255 
-0.029 0.058 -0.006 0 0 0 144 149 83 255 
-0.027 0.06 -0.005 0 0 0 143 148 82 255 
-0.026 0.061 -0.004 0 0 0 144 149 83 255 
-0.024 0.062 -0.004 0 0 0 140 148 81 255 
-0.022 0.061 -0.005 0 0 0 140 148 81 255 
-0.02 0.062 -0.005 0 0 0 145 150 84 255 
-0.018 0.061 -0.006 0 0 0 144 150 82 255 
-0.016 0.061 -0.006 0 0 0 142 148 80 255 
-0.015 0.061 -0.006 0 0 0 148 154 84 255 
-0.013 0.064 -0.004 0 0 0 145 151 81 255 
-0.011 0.065 -0.004 0 0 0 147 155 87 255 
-0.01 0.064 -0.005 0 0 0 144 152 84 255 
-0.007 0.063 -0.006 0 0 0 145 153 85 255 
-0.006 0.063 -0.006 0 0 0 148 156 88 255 
-0.004 0.062 -0.007 0 0 0 151 159 92 255 
-0.002 0.064 -0.006 0 0 0 152 160 93 255 
0 0.065 -0.006 0 0 0 158 166 99 255 
0 0.067 -0.005 0 0 0 161 169 105 255 
0.002 0.067 -0.005 0 0 0 162 171 104 255 
0.004 0.068 -0.005 0 0 0 159 167 100 255 
0.006 0.067 -0.006 0 0 0 158 165 102 255 
0.007 0.068 -0.005 0 0 0 161 168 104 255 
0.009 0.068 -0.005 0 0 0 167 174 114 255 
0.011 0.069 -0.005 0 0 0 169 175 119 255 
0.013 0.069 -0.005 0 0 0 175 181 125 255 
0.014 0.07 -0.005 0 0 0 180 186 132 255 
0.016 0.071 -0.005 0 0 0 181 188 138 255 
0.018 0.07 -0.006 0 0 0 183 192 142 255 
0.02 0.069 -0.006 0 0 0 180 190 145 255 
0.022 0.071 -0.005 0 0 0 181 191 146 255 
0.023 0.072 -0.005 0 0 0 184 196 153 255 
0.025 0.072 -0.005 0 0 0 181 193 150 255 
0.027 0.072 -0.006 0 0 0 185 197 156 255 
0.029 0.071 -0.006 0 0 0 187 198 159 255 
0.03 0.073 -0.005 0 0 0 187 200 161 255 
0.033 0.072 -0.006 0 0 0 186 199 162 255 
0.034 0.073 -0.005 0 0 0 186 199 162 255 
0.037 0.071 -0.007 0 0 0 188 201 164 255 
0.039 0.071 -0.008 0 0 0 187 200 163 255 
0.04 0.072 -0.008 0 0 0 188 199 160 255 
0.042 0.074 -0.007 0 0 0 188 199 160 255 
0.043 0.075 -0.006 0 0 0 188 199 160 255 
0.045 0.075 -0.006 0 0 0 189 200 161 255 
0.047 0.076 -0.006 0 0 0 187 200 163 255 
0.049 0.076 -0.006 0 0 0 188 201 164 255 
0.051 0.076 -0.006 0 0 0 185 198 161 255 
0.052 0.076 -0.006 0 0 0 187 200 163 255 
0.054 0.077 -0.006 0 0 0 186 199 162 255 
0.056 0.077 -0.006 0 0 0 185 198 161 255 
0.058 0.078 -0.006 0 0 0 186 199 160 255 
0.059 0.079 -0.006 0 0 0 190 204 163 255 
0.061 0.079 -0.006 0 0 0 189 203 162 255 
0.063 0.079 -0.006 0 0 0 189 202 163 255 
0.064 0.081 -0.005 0 0 0 190 203 166 255 
0.066 0.081 -0.005 0 0 0 190 203 166 255 
0.068 0.081 -0.006 0 0 0 189 201 166 255 
0.071 0.08 -0.007 0 0 0 189 203 168 255 
0.072 0.08 -0.007 0 0 0 190 204 169 255 
-0.261 0.017 0 0 0 0 175 179 133 255 
-0.259 0.019 0 0 0 0 173 179 133 255 
-0.258 0.016 -0.001 0 0 0 169 176 127 255 
-0.256 0.016 -0.002 0 0 0 167 174 125 255 
-0.254 0.017 -0.001 0 0 0 167 174 125 255 
-0.252 0.019 0 0 0 0 174 179 129 255 
-0.25 0.022 0 0 0 0 167 172 122 255 
-0.248 0.023 0.001 0 0 0 161 166 116 255 
-0.246 0.024 0.001 0 0 0 158 162 112 255 
-0.244 0.026 0.002 0 0 0 150 155 105 255 
-0.242 0.028 0.003 0 0 0 149 154 105 255 
-0.24 0.031 0.005 0 0 0 150 154 108 255 
-0.237 0.037 0.008 0 0 0 88 69 29 255 
-0.234 0.041 0.01 0 0 0 87 45 11 255 
-0.232 0.045 0.013 0 0 0 89 45 13 255 
-0.23 0.048 0.014 0 0 0 101 54 23 255 
-0.227 0.052 0.017 0 0 0 101 52 21 255 
-0.225 0.055 0.018 0 0 0 99 50 20 255 
-0.223 0.057 0.019 0 0 0 95 47 20 255 
-0.221 0.06 0.021 0 0 0 90 44 18 255 
-0.219 0.062 0.022 0 0 0 48 32 9 255 
-0.217 0.066 0.024 0 0 0 32 30 12 255 
-0.215 0.066 0.024 0 0 0 20 19 3 255 
-0.213 0.067 0.024 0 0 0 20 16 6 255 
-0.212 0.065 0.023 0 0 0 18 15 8 255 
-0.211 0.064 0.022 0 0 0 17 14 7 255 
-0.21 0.062 0.021 0 0 0 16 13 6 255 
-0.208 0.063 0.021 0 0 0 17 14 7 255 
-0.207 0.061 0.02 0 0 0 16 13 6 255 
-0.205 0.062 0.02 0 0 0 16 13 6 255 
-0.204 0.061 0.019 0 0 0 14 11 5 255 
-0.202 0.062 0.019 0 0 0 13 12 6 255 
-0.201 0.06 0.018 0 0 0 14 13 7 255 
-0.199 0.061 0.018 0 0 0 13 12 6 255 
-0.197 0.063 0.019 0 0 0 13 12 6 255 
-0.196 0.062 0.019 0 0 0 16 13 7 255 
-0.195 0.059 0.016 0 0 0 18 13 7 255 
-0.194 0.056 0.014 0 0 0 17 12 5 255 
-0.193 0.052 0.011 0 0 0 19 13 6 255 
-0.192 0.049 0.01 0 0 0 23 15 6 255 
-0.19 0.046 0.007 0 0 0 26 16 7 255 
-0.189 0.044 0.006 0 0 0 26 14 5 255 
-0.188 0.042 0.004 0 0 0 30 14 4 255 
-0.187 0.04 0.002 0 0 0 33 17 7 255 
-0.185 0.038 0.001 0 0 0 37 20 10 255 
-0.184 0.036 0 0 0 0 37 21 6 255 
-0.182 0.035 0 0 0 0 35 19 4 255 
-0.181 0.035 0 0 0 0 37 21 5 255 
-0.179 0.035 0 0 0 0 42 28 8 255 
-0.177 0.034 -0.001 0 0 0 51 38 15 255 
-0.176 0.034 -0.002 0 0 0 58 49 19 255 
-0.174 0.033 -0.003 0 0 0 65 56 25 255 
-0.172 0.034 -0.003 0 0 0 66 58 23 255 
-0.171 0.033 -0.003 0 0 0 73 67 23 255 
-0.169 0.034 -0.003 0 0 0 80 74 29 255 
-0.167 0.035 -0.002 0 0 0 80 76 24 255 
-0.166 0.035 -0.002 0 0 0 91 87 34 255 
-0.164 0.036 -0.002 0 0 0 92 91 35 255 
-0.162 0.035 -0.003 0 0 0 101 100 43 255 
-0.16 0.036 -0.003 0 0 0 112 112 50 255 
-0.159 0.036 -0.003 0 0 0 118 121 57 255 
-0.157 0.036 -0.004 0 0 0 118 121 57 255 
-0.156 0.033 -0.005 0 0 0 123 126 62 255 
-0.154 0.033 -0.006 0 0 0 127 130 66 255 
-0.152 0.033 -0.006 0 0 0 130 135 71 255 
-0.15 0.035 -0.005 0 0 0 128 135 71 255 
-0.149 0.034 -0.006 0 0 0 132 139 75 255 
-0.147 0.035 -0.005 0 0 0 134 141 77 255 
-0.145 0.034 -0.006 0 0 0 135 142 79 255 
-0.143 0.035 -0.006 0 0 0 138 145 81 255 
-0.142 0.037 -0.005 0 0 0 140 147 83 255 
-0.14 0.037 -0.005 0 0 0 143 150 86 255 
-0.138 0.037 -0.006 0 0 0 142 150 83 255 
-0.137 0.036 -0.006 0 0 0 144 151 87 255 
-0.135 0.038 -0.006 0 0 0 145 152 88 255 
-0.133 0.037 -0.006 0 0 0 144 151 87 255 
-0.131 0.038 -0.006 0 0 0 143 150 86 255 
-0.13 0.038 -0.006 0 0 0 142 149 85 255 
-0.128 0.038 -0.006 0 0 0 141 146 80 255 
-0.126 0.039 -0.006 0 0 0 141 149 81 255 
-0.124 0.038 -0.007 0 0 0 146 154 86 255 
-0.123 0.039 -0.007 0 0 0 146 154 87 255 
-0.121 0.038 -0.007 0 0 0 145 154 87 255 
-0.119 0.04 -0.007 0 0 0 145 154 87 255 
-0.117 0.039 -0.007 0 0 0 146 154 87 255 
-0.116 0.039 -0.008 0 0 0 146 154 87 255 
-0.114 0.039 -0.008 0 0 0 144 152 84 255 
-0.112 0.04 -0.008 0 0 0 142 150 82 255 
-0.11 0.041 -0.007 0 0 0 144 152 84 255 
-0.109 0.042 -0.007 0 0 0 139 147 79 255 
-0.107 0.043 -0.007 0 0 0 140 148 81 255 
-0.105 0.043 -0.006 0 0 0 140 148 81 255 
-0.103 0.043 -0.007 0 0 0 141 149 82 255 
-0.102 0.043 -0.007 0 0 0 149 157 90 255 
-0.1 0.044 -0.006 0 0 0 144 152 85 255 
-0.098 0.044 -0.007 0 0 0 143 151 84 255 
-0.096 0.044 -0.007 0 0 0 143 150 86 255 
-0.094 0.044 -0.008 0 0 0 145 152 88 255 
-0.093 0.045 -0.007 0 0 0 140 148 81 255 
-0.091 0.045 -0.007 0 0 0 140 147 83 255 
-0.089 0.045 -0.007 0 0 0 144 151 87 255 
-0.087 0.046 -0.007 0 0 0 143 151 88 255 
-0.086 0.047 -0.007 0 0 0 145 152 92 255 
-0.084 0.048 -0.006 0 0 0 145 152 92 255 
-0.082 0.05 -0.005 0 0 0 143 151 88 255 
-0.08 0.05 -0.006 0 0 0 142 149 85 255 
-0.079 0.049 -0.007 0 0 0 143 150 86 255 
-0.077 0.048 -0.007 0 0 0 147 152 86 255 
-0.075 0.049 -0.007 0 0 0 146 153 89 255 
-0.073 0.049 -0.007 0 0 0 145 152 88 255 
-0.072 0.05 -0.007 0 0 0 147 151 91 255 
-0.07 0.052 -0.006 0 0 0 143 148 85 255 
-0.068 0.054 -0.005 0 0 0 148 153 90 255 
-0.066 0.052 -0.006 0 0 0 144 149 85 255 
-0.065 0.054 -0.006 0 0 0 145 150 84 255 
-0.063 0.053 -0.006 0 0 0 145 151 83 255 
-0.061 0.055 -0.006 0 0 0 145 151 83 255 
-0.059 0.055 -0.006 0 0 0 145 151 83 255 
-0.058 0.055 -0.006 0 0 0 146 152 84 255 
-0.056 0.056 -0.006 0 0 0 149 155 87 255 
-0.054 0.056 -0.006 0 0 0 150 156 88 255 
-0.052 0.058 -0.005 0 0 0 149 155 87 255 
-0.051 0.057 -0.006 0 0 0 148 153 87 255 
-0.049 0.057 -0.006 0 0 0 146 151 85 255 
-0.047 0.057 -0.006 0 0 0 144 152 85 255 
-0.045 0.058 -0.006 0 0 0 146 154 86 255 
-0.043 0.057 -0.007 0 0 0 148 156 88 255 
-0.042 0.058 -0.006 0 0 0 147 155 87 255 
-0.04 0.06 -0.005 0 0 0 146 154 86 255 
-0.038 0.061 -0.005 0 0 0 145 153 86 255 
-0.037 0.061 -0.005 0 0 0 145 153 86 255 
-0.035 0.06 -0.006 0 0 0 148 156 89 255 
-0.033 0.06 -0.006 0 0 0 145 153 86 255 
-0.031 0.061 -0.006 0 0 0 146 154 87 255 
-0.029 0.062 -0.005 0 0 0 147 153 85 255 
-0.028 0.063 -0.005 0 0 0 144 152 85 255 
-0.026 0.064 -0.005 0 0 0 142 152 77 255 
-0.024 0.064 -0.005 0 0 0 145 152 88 255 
-0.023 0.065 -0.005 0 0 0 145 152 89 255 
-0.021 0.065 -0.005 0 0 0 145 150 87 255 
-0.019 0.064 -0.006 0 0 0 147 152 88 255 
-0.017 0.064 -0.006 0 0 0 146 152 84 255 
-0.015 0.065 -0.006 0 0 0 146 152 84 255 
-0.014 0.067 -0.005 0 0 0 148 154 86 255 
-0.012 0.069 -0.004 0 0 0 147 155 87 255 
-0.01 0.069 -0.004 0 0 0 153 161 94 255 
-0.008 0.067 -0.005 0 0 0 157 165 97 255 
-0.006 0.066 -0.006 0 0 0 154 163 96 255 
-0.004 0.066 -0.007 0 0 0 152 160 96 255 
-0.003 0.067 -0.006 0 0 0 155 163 99 255 
-0.001 0.067 -0.006 0 0 0 159 167 103 255 
0 0.069 -0.006 0 0 0 165 172 112 255 
0.001 0.07 -0.005 0 0 0 166 173 113 255 
0.003 0.071 -0.005 0 0 0 168 175 115 255 
0.005 0.071 -0.005 0 0 0 174 180 124 255 
0.007 0.071 -0.005 0 0 0 180 186 130 255 
0.008 0.072 -0.005 0 0 0 181 189 135 255 
0.01 0.073 -0.004 0 0 0 180 187 137 255 
0.012 0.073 -0.004 0 0 0 177 186 137 255 
0.014 0.073 -0.005 0 0 0 181 190 141 255 
0.016 0.073 -0.006 0 0 0 179 188 141 255 
0.017 0.073 -0.006 0 0 0 181 190 143 255 
0.019 0.073 -0.006 0 0 0 185 193 148 255 
0.021 0.074 -0.005 0 0 0 186 194 149 255 
0.022 0.076 -0.004 0 0 0 187 197 152 255 
0.024 0.075 -0.005 0 0 0 186 196 153 255 
0.026 0.077 -0.004 0 0 0 183 195 152 255 
0.028 0.076 -0.005 0 0 0 185 197 156 255 
0.03 0.077 -0.005 0 0 0 184 197 160 255 
0.032 0.076 -0.006 0 0 0 186 199 162 255 
0.034 0.076 -0.006 0 0 0 188 200 165 255 
0.035 0.077 -0.005 0 0 0 185 197 162 255 
0.037 0.077 -0.006 0 0 0 187 200 163 255 
0.039 0.076 -0.006 0 0 0 188 201 164 255 
0.041 0.078 -0.006 0 0 0 189 200 163 255 
0.042 0.079 -0.005 0 0 0 187 200 163 255 
0.044 0.079 -0.005 0 0 0 189 202 165 255 
0.046 0.08 -0.005 0 0 0 189 202 165 255 
0.048 0.079 -0.006 0 0 0 189 202 165 255 
0.05 0.08 -0.006 0 0 0 188 201 164 255 
0.052 0.079 -0.006 0 0 0 188 201 164 255 
0.053 0.081 -0.006 0 0 0 190 201 164 255 
0.055 0.081 -0.006 0 0 0 189 200 163 255 
0.056 0.083 -0.005 0 0 0 188 199 160 255 
0.058 0.083 -0.005 0 0 0 190 202 161 255 
0.06 0.083 -0.005 0 0 0 188 200 159 255 
0.062 0.083 -0.006 0 0 0 188 200 159 255 
0.063 0.086 -0.004 0 0 0 188 199 160 255 
0.065 0.086 -0.004 0 0 0 189 201 166 255 
0.067 0.085 -0.005 0 0 0 188 200 167 255 
0.069 0.084 -0.006 0 0 0 190 204 171 255 
-0.257 0.02 -0.001 0 0 0 166 172 118 255 
-0.256 0.018 -0.002 0 0 0 162 168 114 255 
-0.254 0.02 -0.001 0 0 0 159 165 109 255 
-0.252 0.022 0 0 0 0 163 168 112 255 
-0.25 0.025 0 0 0 0 156 162 104 255 
-0.248 0.025 0 0 0 0 156 162 104 255 
-0.246 0.026 0 0 0 0 154 160 102 255 
-0.245 0.026 0 0 0 0 139 145 85 255 
-0.243 0.028 0.001 0 0 0 128 134 76 255 
-0.24 0.03 0.002 0 0 0 121 125 67 255 
-0.238 0.035 0.005 0 0 0 111 113 45 255 
-0.236 0.037 0.006 0 0 0 101 85 31 255 
-0.233 0.041 0.008 0 0 0 62 38 0 255 
-0.231 0.044 0.01 0 0 0 105 60 22 255 
-0.228 0.049 0.013 0 0 0 104 53 20 255 
-0.226 0.051 0.013 0 0 0 100 51 20 255 
-0.224 0.053 0.015 0 0 0 97 48 18 255 
-0.222 0.055 0.016 0 0 0 97 51 25 255 
-0.22 0.058 0.017 0 0 0 80 44 17 255 
-0.218 0.062 0.02 0 0 0 38 36 12 255 
-0.216 0.064 0.021 0 0 0 32 30 12 255 
-0.214 0.066 0.021 0 0 0 19 18 2 255 
-0.213 0.065 0.021 0 0 0 18 16 6 255 
-0.211 0.064 0.02 0 0 0 17 15 5 255 
-0.21 0.065 0.02 0 0 0 15 12 5 255 
-0.207 0.068 0.022 0 0 0 16 13 6 255 
-0.206 0.067 0.021 0 0 0 13 12 6 255 
-0.204 0.068 0.021 0 0 0 15 12 6 255 
-0.203 0.067 0.021 0 0 0 14 13 7 255 
-0.201 0.068 0.021 0 0 0 14 13 7 255 
-0.2 0.065 0.019 0 0 0 13 12 6 255 
-0.199 0.065 0.019 0 0 0 15 14 8 255 
-0.197 0.065 0.019 0 0 0 15 12 6 255 
-0.196 0.066 0.019 0 0 0 16 13 7 255 
-0.194 0.064 0.018 0 0 0 19 16 9 255 
-0.193 0.062 0.016 0 0 0 24 19 12 255 
-0.192 0.057 0.013 0 0 0 26 22 12 255 
-0.191 0.055 0.011 0 0 0 26 22 12 255 
-0.19 0.05 0.008 0 0 0 26 22 12 255 
-0.189 0.047 0.005 0 0 0 27 22 11 255 
-0.188 0.044 0.003 0 0 0 26 21 10 255 
-0.187 0.04 0 0 0 0 26 19 6 255 
-0.185 0.038 0 0 0 0 24 16 0 255 
-0.184 0.036 -0.001 0 0 0 31 21 4 255 
-0.182 0.036 -0.001 0 0 0 45 34 13 255 
-0.181 0.037 -0.001 0 0 0 54 44 17 255 
-0.179 0.036 -0.002 0 0 0 61 52 19 255 
-0.177 0.036 -0.002 0 0 0 66 58 21 255 
-0.176 0.035 -0.003 0 0 0 66 60 16 255 
-0.174 0.036 -0.003 0 0 0 73 67 22 255 
-0.172 0.036 -0.003 0 0 0 80 76 24 255 
-0.171 0.036 -0.003 0 0 0 81 77 24 255 
-0.169 0.036 -0.003 0 0 0 92 89 33 255 
-0.167 0.037 -0.003 0 0 0 97 94 37 255 
-0.165 0.039 -0.002 0 0 0 104 103 46 255 
-0.164 0.038 -0.003 0 0 0 107 107 45 255 
-0.162 0.037 -0.004 0 0 0 114 117 53 255 
-0.161 0.037 -0.004 0 0 0 113 116 50 255 
-0.159 0.039 -0.003 0 0 0 124 127 61 255 
-0.157 0.038 -0.004 0 0 0 123 128 64 255 
-0.156 0.037 -0.005 0 0 0 130 135 71 255 
-0.154 0.037 -0.005 0 0 0 132 137 73 255 
-0.152 0.038 -0.005 0 0 0 134 141 78 255 
-0.15 0.038 -0.005 0 0 0 134 142 79 255 
-0.149 0.038 -0.006 0 0 0 137 145 81 255 
-0.147 0.037 -0.006 0 0 0 137 145 81 255 
-0.145 0.037 -0.007 0 0 0 139 146 82 255 
-0.144 0.036 -0.007 0 0 0 142 150 83 255 
-0.142 0.038 -0.007 0 0 0 135 143 76 255 
-0.14 0.039 -0.006 0 0 0 139 147 80 255 
-0.138 0.039 -0.006 0 0 0 142 150 82 255 
-0.137 0.04 -0.006 0 0 0 143 152 85 255 
-0.135 0.039 -0.007 0 0 0 148 156 89 255 
-0.133 0.04 -0.007 0 0 0 149 156 92 255 
-0.131 0.039 -0.007 0 0 0 145 152 88 255 
-0.13 0.041 -0.007 0 0 0 144 151 88 255 
-0.128 0.04 -0.007 0 0 0 149 154 90 255 
-0.126 0.041 -0.007 0 0 0 146 154 87 255 
-0.124 0.042 -0.007 0 0 0 144 152 84 255 
-0.123 0.042 -0.006 0 0 0 145 154 87 255 
-0.121 0.041 -0.008 0 0 0 146 154 87 255 
-0.119 0.041 -0.008 0 0 0 149 157 90 255 
-0.117 0.042 -0.008 0 0 0 147 155 88 255 
-0.116 0.042 -0.008 0 0 0 146 154 87 255 
-0.114 0.043 -0.008 0 0 0 149 157 89 255 
-0.112 0.043 -0.008 0 0 0 147 155 88 255 
-0.11 0.044 -0.008 0 0 0 144 151 87 255 
-0.109 0.045 -0.007 0 0 0 143 150 86 255 
-0.107 0.045 -0.007 0 0 0 140 147 83 255 
-0.105 0.046 -0.007 0 0 0 143 150 86 255 
-0.103 0.044 -0.008 0 0 0 144 152 85 255 
-0.102 0.045 -0.008 0 0 0 147 155 87 255 
-0.1 0.046 -0.007 0 0 0 142 150 82 255 
-0.098 0.046 -0.007 0 0 0 141 149 81 255 
-0.096 0.048 -0.007 0 0 0 145 153 85 255 
-0.095 0.046 -0.008 0 0 0 147 155 87 255 
-0.093 0.047 -0.008 0 0 0 145 153 85 255 
-0.091 0.047 -0.008 0 0 0 143 151 83 255 
-0.089 0.049 -0.007 0 0 0 143 151 84 255 
-0.088 0.049 -0.007 0 0 0 144 151 87 255 
-0.086 0.05 -0.007 0 0 0 141 149 86 255 
-0.084 0.052 -0.006 0 0 0 145 153 90 255 
-0.083 0.053 -0.006 0 0 0 143 150 90 255 
-0.081 0.053 -0.006 0 0 0 144 151 87 255 
-0.079 0.052 -0.007 0 0 0 145 153 86 255 
-0.077 0.052 -0.007 0 0 0 146 154 86 255 
-0.075 0.053 -0.007 0 0 0 146 154 87 255 
-0.074 0.052 -0.007 0 0 0 146 153 89 255 
-0.072 0.053 -0.007 0 0 0 145 152 89 255 
-0.07 0.053 -0.007 0 0 0 145 152 88 255 
-0.069 0.055 -0.006 0 0 0 145 152 88 255 
-0.067 0.056 -0.006 0 0 0 145 153 86 255 
-0.065 0.056 -0.006 0 0 0 143 151 83 255 
-0.063 0.055 -0.007 0 0 0 143 149 81 255 
-0.061 0.056 -0.007 0 0 0 143 149 81 255 
-0.06 0.057 -0.007 0 0 0 142 148 80 255 
-0.058 0.057 -0.007 0 0 0 146 152 84 255 
-0.056 0.058 -0.007 0 0 0 148 152 84 255 
-0.054 0.058 -0.007 0 0 0 146 152 84 255 
-0.053 0.058 -0.007 0 0 0 146 151 85 255 
-0.051 0.059 -0.007 0 0 0 146 151 85 255 
-0.049 0.059 -0.007 0 0 0 147 152 86 255 
-0.047 0.059 -0.007 0 0 0 145 153 86 255 
-0.046 0.059 -0.007 0 0 0 145 153 85 255 
-0.044 0.059 -0.008 0 0 0 147 155 87 255 
-0.042 0.061 -0.006 0 0 0 148 156 88 255 
-0.04 0.062 -0.006 0 0 0 149 157 89 255 
-0.039 0.063 -0.005 0 0 0 150 158 91 255 
-0.037 0.063 -0.006 0 0 0 149 157 90 255 
-0.035 0.063 -0.006 0 0 0 153 161 94 255 
-0.033 0.062 -0.007 0 0 0 148 156 89 255 
-0.032 0.064 -0.006 0 0 0 147 155 88 255 
-0.03 0.065 -0.006 0 0 0 147 155 88 255 
-0.028 0.066 -0.005 0 0 0 147 155 88 255 
-0.026 0.066 -0.006 0 0 0 150 158 90 255 
-0.025 0.067 -0.005 0 0 0 153 160 96 255 
-0.023 0.067 -0.005 0 0 0 153 160 97 255 
-0.021 0.068 -0.005 0 0 0 151 156 93 255 
-0.019 0.067 -0.006 0 0 0 154 159 95 255 
-0.018 0.069 -0.005 0 0 0 156 162 94 255 
-0.016 0.068 -0.006 0 0 0 161 167 99 255 
-0.014 0.07 -0.005 0 0 0 155 161 93 255 
-0.013 0.072 -0.004 0 0 0 153 161 93 255 
-0.011 0.073 -0.003 0 0 0 155 164 97 255 
-0.009 0.071 -0.005 0 0 0 159 168 101 255 
-0.007 0.07 -0.006 0 0 0 161 169 105 255 
-0.005 0.069 -0.007 0 0 0 161 169 106 255 
-0.003 0.07 -0.007 0 0 0 166 174 111 255 
-0.001 0.07 -0.007 0 0 0 166 174 111 255 
0 0.071 -0.006 0 0 0 167 174 116 255 
0.001 0.073 -0.005 0 0 0 171 178 120 255 
0.003 0.073 -0.006 0 0 0 173 179 123 255 
0.004 0.072 -0.006 0 0 0 177 186 129 255 
0.006 0.073 -0.006 0 0 0 182 190 136 255 
0.008 0.074 -0.005 0 0 0 180 189 139 255 
0.01 0.074 -0.006 0 0 0 180 189 140 255 
0.012 0.074 -0.006 0 0 0 181 190 143 255 
0.013 0.074 -0.007 0 0 0 183 192 145 255 
0.015 0.074 -0.007 0 0 0 185 193 148 255 
0.017 0.075 -0.006 0 0 0 186 194 149 255 
0.019 0.076 -0.006 0 0 0 183 191 146 255 
0.02 0.078 -0.005 0 0 0 182 192 147 255 
0.022 0.078 -0.005 0 0 0 184 194 151 255 
0.024 0.078 -0.005 0 0 0 185 195 152 255 
0.025 0.079 -0.005 0 0 0 182 194 151 255 
0.027 0.079 -0.005 0 0 0 186 198 157 255 
0.029 0.079 -0.005 0 0 0 188 199 162 255 
0.031 0.079 -0.006 0 0 0 190 201 164 255 
0.033 0.079 -0.006 0 0 0 188 201 164 255 
0.034 0.081 -0.005 0 0 0 188 200 165 255 
0.036 0.079 -0.006 0 0 0 187 200 163 255 
0.038 0.081 -0.006 0 0 0 187 200 163 255 
0.04 0.08 -0.006 0 0 0 189 202 165 255 
0.042 0.081 -0.006 0 0 0 189 201 166 255 
0.044 0.081 -0.006 0 0 0 189 202 165 255 
0.045 0.082 -0.006 0 0 0 191 204 167 255 
0.048 0.08 -0.007 0 0 0 192 205 168 255 
0.049 0.082 -0.007 0 0 0 189 202 165 255 
0.051 0.082 -0.007 0 0 0 188 201 164 255 
0.052 0.084 -0.006 0 0 0 189 202 165 255 
0.054 0.084 -0.006 0 0 0 191 202 165 255 
0.056 0.085 -0.006 0 0 0 191 202 163 255 
0.058 0.084 -0.007 0 0 0 190 202 161 255 
0.06 0.084 -0.007 0 0 0 188 200 159 255 
0.061 0.085 -0.006 0 0 0 187 199 158 255 
0.062 0.088 -0.004 0 0 0 189 200 161 255 
0.064 0.089 -0.004 0 0 0 188 201 164 255 
0.066 0.087 -0.006 0 0 0 188 200 165 255 
-0.255 0.023 -0.001 0 0 0 159 165 109 255 
-0.254 0.023 -0.001 0 0 0 160 166 108 255 
-0.252 0.025 -0.001 0 0 0 150 156 96 255 
-0.25 0.025 -0.001 0 0 0 151 157 97 255 
-0.248 0.026 -0.001 0 0 0 146 153 90 255 
-0.246 0.028 0 0 0 0 150 156 96 255 
-0.244 0.028 0 0 0 0 152 159 96 255 
-0.242 0.03 0.001 0 0 0 147 154 91 255 
-0.24 0.032 0.001 0 0 0 143 149 81 255 
-0.239 0.033 0.002 0 0 0 132 134 63 255 
-0.237 0.034 0.002 0 0 0 129 131 63 255 
-0.235 0.037 0.004 0 0 0 113 107 52 255 
-0.232 0.04 0.005 0 0 0 107 69 27 255 
-0.229 0.046 0.009 0 0 0 106 56 21 255 
-0.228 0.047 0.009 0 0 0 106 55 22 255 
-0.225 0.051 0.011 0 0 0 104 55 25 255 
-0.223 0.053 0.013 0 0 0 101 51 24 255 
-0.221 0.056 0.014 0 0 0 85 47 20 255 
-0.219 0.057 0.014 0 0 0 43 39 14 255 
-0.217 0.062 0.018 0 0 0 35 33 15 255 
-0.214 0.067 0.021 0 0 0 31 29 11 255 
-0.212 0.071 0.023 0 0 0 28 25 11 255 
-0.21 0.071 0.022 0 0 0 24 20 10 255 
-0.209 0.072 0.023 0 0 0 18 14 4 255 
-0.207 0.074 0.024 0 0 0 18 13 6 255 
-0.205 0.075 0.024 0 0 0 19 14 7 255 
-0.203 0.075 0.024 0 0 0 17 14 7 255 
-0.202 0.076 0.025 0 0 0 16 13 7 255 
-0.2 0.076 0.024 0 0 0 17 14 8 255 
-0.199 0.075 0.023 0 0 0 18 13 7 255 
-0.198 0.072 0.021 0 0 0 19 14 8 255 
-0.197 0.071 0.02 0 0 0 20 15 9 255 
-0.195 0.07 0.02 0 0 0 20 15 8 255 
-0.194 0.069 0.018 0 0 0 17 13 3 255 
-0.193 0.066 0.017 0 0 0 22 18 8 255 
-0.192 0.062 0.014 0 0 0 26 22 11 255 
-0.19 0.061 0.013 0 0 0 27 23 12 255 
-0.19 0.056 0.01 0 0 0 27 23 12 255 
-0.189 0.051 0.006 0 0 0 26 22 11 255 
-0.188 0.046 0.003 0 0 0 26 22 11 255 
-0.187 0.043 0.001 0 0 0 26 22 8 255 
-0.185 0.04 -0.001 0 0 0 28 22 6 255 
-0.184 0.039 -0.002 0 0 0 49 42 21 255 
-0.182 0.039 -0.002 0 0 0 60 52 25 255 
-0.181 0.039 -0.002 0 0 0 71 66 28 255 
-0.179 0.04 -0.002 0 0 0 77 70 29 255 
-0.177 0.039 -0.002 0 0 0 77 73 29 255 
-0.176 0.04 -0.002 0 0 0 80 77 29 255 
-0.174 0.04 -0.002 0 0 0 85 83 31 255 
-0.172 0.04 -0.003 0 0 0 89 88 32 255 
-0.171 0.039 -0.003 0 0 0 101 100 44 255 
-0.169 0.04 -0.003 0 0 0 105 102 43 255 
-0.167 0.04 -0.003 0 0 0 115 113 51 255 
-0.165 0.041 -0.003 0 0 0 115 116 52 255 
-0.164 0.04 -0.004 0 0 0 124 125 59 255 
-0.162 0.04 -0.004 0 0 0 125 128 62 255 
-0.16 0.041 -0.004 0 0 0 130 133 67 255 
-0.159 0.042 -0.003 0 0 0 128 133 67 255 
-0.157 0.043 -0.003 0 0 0 132 137 73 255 
-0.155 0.042 -0.004 0 0 0 131 136 72 255 
-0.154 0.042 -0.004 0 0 0 133 140 77 255 
-0.152 0.042 -0.004 0 0 0 133 140 77 255 
-0.15 0.042 -0.005 0 0 0 138 145 82 255 
-0.149 0.04 -0.006 0 0 0 139 147 83 255 
-0.147 0.04 -0.007 0 0 0 143 151 88 255 
-0.145 0.04 -0.007 0 0 0 143 150 86 255 
-0.144 0.041 -0.007 0 0 0 145 152 88 255 
-0.142 0.042 -0.006 0 0 0 145 153 86 255 
-0.14 0.042 -0.006 0 0 0 143 151 84 255 
-0.138 0.043 -0.006 0 0 0 143 151 83 255 
-0.137 0.042 -0.006 0 0 0 143 151 83 255 
-0.135 0.043 -0.006 0 0 0 137 145 77 255 
-0.133 0.043 -0.006 0 0 0 146 153 89 255 
-0.131 0.044 -0.006 0 0 0 146 153 89 255 
-0.13 0.043 -0.007 0 0 0 152 159 95 255 
-0.128 0.044 -0.007 0 0 0 152 157 93 255 
-0.126 0.046 -0.006 0 0 0 149 157 90 255 
-0.125 0.046 -0.006 0 0 0 149 157 89 255 
-0.123 0.047 -0.006 0 0 0 147 155 88 255 
-0.121 0.045 -0.007 0 0 0 148 156 89 255 
-0.119 0.045 -0.007 0 0 0 144 152 84 255 
-0.118 0.044 -0.008 0 0 0 143 151 84 255 
-0.116 0.046 -0.007 0 0 0 146 154 87 255 
-0.114 0.046 -0.007 0 0 0 145 153 85 255 
-0.112 0.047 -0.007 0 0 0 146 154 86 255 
-0.111 0.047 -0.007 0 0 0 148 156 89 255 
-0.109 0.048 -0.007 0 0 0 146 154 87 255 
-0.107 0.049 -0.007 0 0 0 143 151 87 255 
-0.105 0.049 -0.007 0 0 0 143 152 85 255 
-0.104 0.05 -0.007 0 0 0 145 153 85 255 
-0.102 0.049 -0.007 0 0 0 143 151 83 255 
-0.1 0.05 -0.007 0 0 0 139 147 79 255 
-0.098 0.05 -0.007 0 0 0 144 152 84 255 
-0.097 0.051 -0.007 0 0 0 145 151 83 255 
-0.095 0.052 -0.007 0 0 0 148 156 88 255 
-0.093 0.052 -0.007 0 0 0 143 151 83 255 
-0.091 0.052 -0.007 0 0 0 144 152 84 255 
-0.09 0.053 -0.007 0 0 0 145 153 86 255 
-0.088 0.052 -0.007 0 0 0 147 155 88 255 
-0.086 0.053 -0.007 0 0 0 148 156 92 255 
-0.085 0.054 -0.007 0 0 0 148 156 93 255 
-0.083 0.055 -0.006 0 0 0 148 156 93 255 
-0.081 0.056 -0.006 0 0 0 144 151 87 255 
-0.079 0.055 -0.007 0 0 0 145 153 86 255 
-0.078 0.056 -0.007 0 0 0 145 151 83 255 
-0.076 0.057 -0.006 0 0 0 147 155 87 255 
-0.074 0.057 -0.007 0 0 0 148 156 89 255 
-0.072 0.057 -0.007 0 0 0 146 153 90 255 
-0.071 0.057 -0.007 0 0 0 143 151 88 255 
-0.069 0.058 -0.007 0 0 0 145 153 90 255 
-0.067 0.058 -0.007 0 0 0 146 153 89 255 
-0.065 0.059 -0.007 0 0 0 145 153 86 255 
-0.064 0.058 -0.007 0 0 0 147 153 85 255 
-0.062 0.059 -0.007 0 0 0 147 153 85 255 
-0.06 0.058 -0.008 0 0 0 147 153 85 255 
-0.058 0.059 -0.008 0 0 0 150 156 88 255 
-0.057 0.06 -0.007 0 0 0 151 155 87 255 
-0.055 0.061 -0.007 0 0 0 144 150 82 255 
-0.053 0.062 -0.006 0 0 0 143 148 82 255 
-0.051 0.061 -0.007 0 0 0 144 149 83 255 
-0.049 0.062 -0.007 0 0 0 148 154 86 255 
-0.048 0.061 -0.007 0 0 0 146 154 86 255 
-0.046 0.063 -0.007 0 0 0 150 156 86 255 
-0.044 0.063 -0.007 0 0 0 146 154 86 255 
-0.043 0.064 -0.006 0 0 0 143 151 83 255 
-0.041 0.065 -0.006 0 0 0 145 153 85 255 
-0.039 0.066 -0.006 0 0 0 145 153 86 255 
-0.037 0.066 -0.006 0 0 0 150 159 92 255 
-0.036 0.066 -0.006 0 0 0 148 157 90 255 
-0.034 0.066 -0.007 0 0 0 151 159 92 255 
-0.032 0.067 -0.006 0 0 0 154 162 95 255 
-0.03 0.067 -0.006 0 0 0 151 159 92 255 
-0.029 0.068 -0.006 0 0 0 154 161 97 255 
-0.027 0.067 -0.007 0 0 0 157 164 101 255 
-0.025 0.069 -0.006 0 0 0 159 166 103 255 
-0.024 0.071 -0.005 0 0 0 154 161 101 255 
-0.022 0.071 -0.005 0 0 0 155 163 100 255 
-0.02 0.07 -0.006 0 0 0 159 166 102 255 
-0.018 0.07 -0.006 0 0 0 159 167 100 255 
-0.016 0.071 -0.006 0 0 0 159 167 100 255 
-0.015 0.072 -0.006 0 0 0 159 168 101 255 
-0.013 0.074 -0.004 0 0 0 158 166 102 255 
-0.012 0.075 -0.004 0 0 0 158 166 103 255 
-0.01 0.074 -0.005 0 0 0 159 167 104 255 
-0.008 0.074 -0.006 0 0 0 161 168 108 255 
-0.006 0.072 -0.007 0 0 0 166 173 115 255 
-0.004 0.073 -0.007 0 0 0 168 175 117 255 
-0.002 0.074 -0.006 0 0 0 172 179 121 255 
0 0.075 -0.006 0 0 0 172 181 124 255 
0 0.076 -0.005 0 0 0 173 183 129 255 
0.002 0.076 -0.005 0 0 0 176 185 135 255 
0.004 0.077 -0.005 0 0 0 179 188 139 255 
0.006 0.076 -0.006 0 0 0 178 189 142 255 
0.007 0.078 -0.005 0 0 0 177 188 141 255 
0.009 0.077 -0.006 0 0 0 177 187 142 255 
0.011 0.078 -0.005 0 0 0 177 187 142 255 
0.013 0.078 -0.006 0 0 0 180 190 145 255 
0.015 0.078 -0.006 0 0 0 181 191 146 255 
0.016 0.078 -0.006 0 0 0 185 195 150 255 
0.018 0.079 -0.006 0 0 0 186 196 151 255 
0.019 0.08 -0.005 0 0 0 188 196 151 255 
0.021 0.08 -0.006 0 0 0 187 195 150 255 
0.023 0.079 -0.007 0 0 0 188 196 151 255 
0.025 0.08 -0.006 0 0 0 185 195 150 255 
0.027 0.081 -0.006 0 0 0 189 198 158 255 
0.029 0.081 -0.006 0 0 0 189 200 161 255 
0.03 0.082 -0.006 0 0 0 189 200 161 255 
0.032 0.083 -0.006 0 0 0 190 201 162 255 
0.033 0.085 -0.005 0 0 0 188 201 162 255 
0.035 0.085 -0.005 0 0 0 187 200 161 255 
0.037 0.085 -0.005 0 0 0 191 204 165 255 
0.039 0.084 -0.006 0 0 0 190 203 166 255 
0.041 0.084 -0.006 0 0 0 189 202 165 255 
0.043 0.084 -0.006 0 0 0 190 203 166 255 
0.044 0.085 -0.006 0 0 0 193 206 167 255 
0.046 0.084 -0.007 0 0 0 189 202 165 255 
0.048 0.085 -0.007 0 0 0 188 201 164 255 
0.05 0.086 -0.006 0 0 0 190 202 167 255 
0.051 0.087 -0.006 0 0 0 190 202 167 255 
0.053 0.087 -0.006 0 0 0 190 202 167 255 
0.055 0.087 -0.006 0 0 0 190 201 164 255 
0.057 0.088 -0.006 0 0 0 191 202 165 255 
0.059 0.087 -0.007 0 0 0 191 202 165 255 
0.06 0.089 -0.006 0 0 0 191 202 165 255 
0.062 0.09 -0.005 0 0 0 191 202 165 255 
-0.253 0.026 -0.002 0 0 0 156 162 102 255 
-0.251 0.027 -0.001 0 0 0 154 161 98 255 
-0.25 0.027 -0.002 0 0 0 158 164 104 255 
-0.248 0.028 -0.001 0 0 0 145 152 89 255 
-0.246 0.029 -0.001 0 0 0 153 160 97 255 
-0.244 0.03 0 0 0 0 149 156 93 255 
-0.243 0.031 0 0 0 0 150 158 91 255 
-0.24 0.034 0 0 0 0 151 156 90 255 
-0.239 0.034 0 0 0 0 151 154 90 255 
-0.237 0.034 0 0 0 0 144 149 85 255 
-0.235 0.037 0.002 0 0 0 127 124 67 255 
-0.233 0.04 0.003 0 0 0 118 99 49 255 
-0.23 0.043 0.005 0 0 0 96 60 15 255 
-0.229 0.044 0.006 0 0 0 97 56 18 255 
-0.226 0.048 0.008 0 0 0 104 55 25 255 
-0.224 0.052 0.01 0 0 0 103 54 24 255 
-0.222 0.054 0.011 0 0 0 90 49 22 255 
-0.22 0.056 0.012 0 0 0 57 42 13 255 
-0.217 0.061 0.015 0 0 0 38 36 12 255 
-0.214 0.069 0.02 0 0 0 33 27 10 255 
-0.212 0.072 0.021 0 0 0 30 18 1 255 
-0.21 0.073 0.022 0 0 0 40 24 8 255 
-0.208 0.075 0.023 0 0 0 39 23 7 255 
-0.207 0.076 0.023 0 0 0 34 23 8 255 
-0.205 0.075 0.023 0 0 0 33 24 11 255 
-0.204 0.075 0.022 0 0 0 26 23 9 255 
-0.202 0.076 0.023 0 0 0 28 21 10 255 
-0.2 0.077 0.023 0 0 0 20 13 2 255 
-0.199 0.078 0.023 0 0 0 13 9 0 255 
-0.197 0.076 0.022 0 0 0 12 8 0 255 
-0.196 0.073 0.02 0 0 0 30 14 4 255 
-0.195 0.072 0.019 0 0 0 41 27 17 255 
-0.194 0.07 0.017 0 0 0 21 9 0 255 
-0.193 0.068 0.016 0 0 0 27 18 7 255 
-0.191 0.067 0.015 0 0 0 23 19 8 255 
-0.19 0.065 0.014 0 0 0 26 22 11 255 
-0.189 0.062 0.011 0 0 0 26 23 9 255 
-0.188 0.056 0.008 0 0 0 26 23 9 255 
-0.188 0.05 0.003 0 0 0 25 22 8 255 
-0.187 0.044 0 0 0 0 26 23 7 255 
-0.186 0.04 -0.003 0 0 0 27 23 6 255 
-0.184 0.039 -0.003 0 0 0 30 25 5 255 
-0.182 0.041 -0.003 0 0 0 71 66 35 255 
-0.181 0.042 -0.002 0 0 0 75 71 26 255 
-0.179 0.042 -0.003 0 0 0 82 79 30 255 
-0.177 0.041 -0.003 0 0 0 81 79 26 255 
-0.176 0.042 -0.003 0 0 0 90 91 35 255 
-0.174 0.043 -0.003 0 0 0 97 98 42 255 
-0.172 0.042 -0.003 0 0 0 103 104 47 255 
-0.171 0.041 -0.004 0 0 0 108 109 52 255 
-0.169 0.041 -0.004 0 0 0 113 113 51 255 
-0.167 0.042 -0.004 0 0 0 117 117 55 255 
-0.165 0.044 -0.003 0 0 0 120 123 59 255 
-0.164 0.043 -0.004 0 0 0 123 126 60 255 
-0.162 0.043 -0.004 0 0 0 138 141 75 255 
-0.161 0.044 -0.004 0 0 0 132 137 71 255 
-0.159 0.045 -0.004 0 0 0 134 139 73 255 
-0.157 0.044 -0.004 0 0 0 132 137 71 255 
-0.155 0.044 -0.005 0 0 0 137 142 76 255 
-0.154 0.043 -0.005 0 0 0 134 141 77 255 
-0.152 0.044 -0.005 0 0 0 138 145 82 255 
-0.15 0.044 -0.005 0 0 0 140 147 84 255 
-0.149 0.045 -0.005 0 0 0 137 144 84 255 
-0.147 0.045 -0.005 0 0 0 140 147 89 255 
-0.145 0.045 -0.006 0 0 0 144 150 90 255 
-0.144 0.044 -0.006 0 0 0 144 150 90 255 
-0.142 0.045 -0.006 0 0 0 147 154 90 255 
-0.14 0.046 -0.006 0 0 0 146 154 87 255 
-0.138 0.045 -0.006 0 0 0 144 152 84 255 
-0.137 0.044 -0.007 0 0 0 147 155 87 255 
-0.135 0.044 -0.008 0 0 0 148 156 88 255 
-0.133 0.044 -0.008 0 0 0 144 152 84 255 
-0.132 0.045 -0.007 0 0 0 144 152 84 255 
-0.13 0.047 -0.007 0 0 0 146 154 87 255 
-0.128 0.046 -0.007 0 0 0 149 154 88 255 
-0.126 0.048 -0.007 0 0 0 148 153 87 255 
-0.125 0.048 -0.007 0 0 0 152 157 91 255 
-0.123 0.049 -0.006 0 0 0 150 155 89 255 
-0.121 0.048 -0.007 0 0 0 148 156 88 255 
-0.12 0.048 -0.007 0 0 0 147 155 87 255 
-0.118 0.047 -0.008 0 0 0 148 156 88 255 
-0.116 0.049 -0.007 0 0 0 144 150 82 255 
-0.114 0.05 -0.007 0 0 0 146 152 84 255 
-0.113 0.05 -0.007 0 0 0 145 153 86 255 
-0.111 0.05 -0.008 0 0 0 149 157 90 255 
-0.109 0.05 -0.008 0 0 0 148 155 92 255 
-0.107 0.051 -0.007 0 0 0 147 155 92 255 
-0.106 0.052 -0.007 0 0 0 150 158 94 255 
-0.104 0.051 -0.008 0 0 0 148 157 89 255 
-0.102 0.053 -0.007 0 0 0 145 154 86 255 
-0.1 0.053 -0.007 0 0 0 142 150 82 255 
-0.099 0.053 -0.007 0 0 0 144 152 84 255 
-0.097 0.053 -0.008 0 0 0 146 154 86 255 
-0.095 0.054 -0.007 0 0 0 150 158 91 255 
-0.093 0.056 -0.007 0 0 0 148 156 89 255 
-0.092 0.057 -0.006 0 0 0 146 154 86 255 
-0.09 0.056 -0.007 0 0 0 145 153 89 255 
-0.088 0.057 -0.007 0 0 0 144 152 88 255 
-0.087 0.056 -0.007 0 0 0 146 154 91 255 
-0.085 0.057 -0.007 0 0 0 149 157 94 255 
-0.083 0.056 -0.008 0 0 0 149 156 96 255 
-0.081 0.057 -0.008 0 0 0 152 159 96 255 
-0.08 0.057 -0.008 0 0 0 149 156 92 255 
-0.078 0.058 -0.007 0 0 0 146 152 84 255 
-0.076 0.061 -0.006 0 0 0 145 153 85 255 
-0.074 0.06 -0.006 0 0 0 148 156 89 255 
-0.073 0.06 -0.007 0 0 0 149 157 90 255 
-0.071 0.059 -0.008 0 0 0 149 157 94 255 
-0.069 0.061 -0.007 0 0 0 152 160 97 255 
-0.067 0.063 -0.006 0 0 0 149 157 93 255 
-0.066 0.062 -0.006 0 0 0 148 156 92 255 
-0.064 0.062 -0.007 0 0 0 147 155 88 255 
-0.062 0.061 -0.008 0 0 0 147 155 87 255 
-0.06 0.061 -0.008 0 0 0 153 161 93 255 
-0.059 0.061 -0.008 0 0 0 148 156 89 255 
-0.057 0.063 -0.007 0 0 0 147 155 88 255 
-0.055 0.062 -0.008 0 0 0 148 156 89 255 
-0.053 0.064 -0.007 0 0 0 148 155 91 255 
-0.052 0.064 -0.007 0 0 0 151 159 92 255 
-0.05 0.065 -0.007 0 0 0 149 157 89 255 
-0.048 0.065 -0.007 0 0 0 140 148 80 255 
-0.046 0.065 -0.007 0 0 0 145 153 85 255 
-0.045 0.067 -0.007 0 0 0 147 155 87 255 
-0.043 0.068 -0.006 0 0 0 145 153 85 255 
-0.041 0.069 -0.006 0 0 0 146 154 86 255 
-0.04 0.069 -0.006 0 0 0 146 154 86 255 
-0.038 0.068 -0.007 0 0 0 148 156 88 255 
-0.036 0.069 -0.007 0 0 0 147 155 87 255 
-0.034 0.069 -0.007 0 0 0 152 160 92 255 
-0.033 0.07 -0.006 0 0 0 151 159 91 255 
-0.031 0.071 -0.006 0 0 0 151 159 92 255 
-0.029 0.071 -0.006 0 0 0 156 163 99 255 
-0.027 0.07 -0.007 0 0 0 159 166 103 255 
-0.025 0.071 -0.007 0 0 0 159 167 104 255 
-0.024 0.072 -0.006 0 0 0 162 169 109 255 
-0.022 0.074 -0.005 0 0 0 161 169 106 255 
-0.02 0.073 -0.006 0 0 0 162 170 106 255 
-0.018 0.073 -0.007 0 0 0 160 169 102 255 
-0.017 0.073 -0.007 0 0 0 158 166 102 255 
-0.015 0.074 -0.007 0 0 0 162 170 106 255 
-0.014 0.076 -0.005 0 0 0 162 170 107 255 
-0.012 0.078 -0.004 0 0 0 164 171 111 255 
-0.01 0.077 -0.005 0 0 0 164 171 111 255 
-0.008 0.078 -0.005 0 0 0 168 175 117 255 
-0.006 0.076 -0.006 0 0 0 162 171 114 255 
-0.005 0.076 -0.006 0 0 0 163 172 115 255 
-0.003 0.076 -0.007 0 0 0 164 173 116 255 
-0.001 0.077 -0.006 0 0 0 174 184 131 255 
0 0.078 -0.006 0 0 0 177 188 139 255 
0.001 0.08 -0.005 0 0 0 178 189 142 255 
0.003 0.079 -0.006 0 0 0 180 190 145 255 
0.005 0.08 -0.005 0 0 0 182 192 147 255 
0.007 0.08 -0.006 0 0 0 178 188 143 255 
0.009 0.08 -0.006 0 0 0 181 191 146 255 
0.01 0.079 -0.007 0 0 0 182 192 147 255 
0.012 0.08 -0.006 0 0 0 182 192 149 255 
0.014 0.08 -0.007 0 0 0 185 195 152 255 
0.016 0.081 -0.007 0 0 0 187 197 154 255 
0.017 0.082 -0.006 0 0 0 187 197 152 255 
0.019 0.084 -0.005 0 0 0 187 197 152 255 
0.021 0.083 -0.006 0 0 0 189 197 152 255 
0.023 0.082 -0.007 0 0 0 188 196 151 255 
0.024 0.083 -0.007 0 0 0 186 194 149 255 
0.026 0.083 -0.007 0 0 0 184 193 153 255 
0.028 0.084 -0.007 0 0 0 183 192 152 255 
0.03 0.085 -0.006 0 0 0 183 194 155 255 
0.031 0.085 -0.006 0 0 0 187 198 159 255 
0.033 0.086 -0.006 0 0 0 184 197 158 255 
0.035 0.086 -0.006 0 0 0 188 201 162 255 
0.036 0.087 -0.006 0 0 0 188 201 162 255 
0.038 0.087 -0.006 0 0 0 189 202 165 255 
0.04 0.087 -0.006 0 0 0 190 203 166 255 
0.042 0.087 -0.007 0 0 0 192 203 164 255 
0.044 0.087 -0.007 0 0 0 193 204 165 255 
0.046 0.086 -0.008 0 0 0 191 202 165 255 
0.047 0.088 -0.007 0 0 0 191 202 165 255 
0.049 0.09 -0.005 0 0 0 191 201 166 255 
0.05 0.091 -0.005 0 0 0 192 204 169 255 
0.052 0.09 -0.006 0 0 0 190 202 167 255 
0.055 0.089 -0.007 0 0 0 190 203 166 255 
0.056 0.09 -0.006 0 0 0 188 201 164 255 
0.058 0.091 -0.006 0 0 0 190 203 166 255 
0.059 0.092 -0.006 0 0 0 190 203 166 255 
-0.251 0.03 -0.001 0 0 0 158 163 99 255 
-0.25 0.03 -0.002 0 0 0 153 158 94 255 
-0.248 0.031 -0.001 0 0 0 159 164 100 255 
-0.246 0.032 -0.001 0 0 0 158 164 104 255 
-0.244 0.033 -0.001 0 0 0 151 158 94 255 
-0.242 0.034 0 0 0 0 149 156 92 255 
-0.241 0.034 0 0 0 0 146 153 89 255 
-0.239 0.035 0 0 0 0 153 158 94 255 
-0.237 0.035 0 0 0 0 153 156 92 255 
-0.236 0.036 0 0 0 0 145 148 82 255 
-0.233 0.038 0 0 0 0 141 144 80 255 
-0.231 0.041 0.002 0 0 0 123 122 55 255 
-0.229 0.044 0.003 0 0 0 96 75 33 255 
-0.227 0.046 0.005 0 0 0 91 55 20 255 
-0.225 0.049 0.006 0 0 0 101 54 23 255 
-0.222 0.052 0.008 0 0 0 85 53 26 255 
-0.22 0.057 0.011 0 0 0 46 40 13 255 
-0.217 0.065 0.015 0 0 0 41 34 14 255 
-0.214 0.071 0.019 0 0 0 40 26 9 255 
-0.212 0.074 0.021 0 0 0 33 18 0 255 
-0.21 0.075 0.021 0 0 0 79 45 28 255 
-0.209 0.075 0.021 0 0 0 85 45 27 255 
-0.207 0.074 0.02 0 0 0 76 37 23 255 
-0.206 0.074 0.019 0 0 0 60 36 20 255 
-0.204 0.076 0.021 0 0 0 25 10 0 255 
-0.202 0.077 0.021 0 0 0 43 25 10 255 
-0.201 0.076 0.021 0 0 0 82 53 39 255 
-0.199 0.077 0.021 0 0 0 59 35 19 255 
-0.198 0.075 0.02 0 0 0 68 41 26 255 
-0.197 0.074 0.018 0 0 0 62 32 18 255 
-0.196 0.072 0.017 0 0 0 51 30 18 255 
-0.194 0.07 0.016 0 0 0 25 10 0 255 
-0.193 0.069 0.014 0 0 0 32 18 8 255 
-0.191 0.068 0.014 0 0 0 27 22 11 255 
-0.19 0.069 0.014 0 0 0 26 22 11 255 
-0.188 0.068 0.013 0 0 0 26 23 9 255 
-0.188 0.059 0.007 0 0 0 26 23 9 255 
-0.188 0.052 0.003 0 0 0 27 24 10 255 
-0.187 0.046 -0.001 0 0 0 27 24 10 255 
-0.186 0.043 -0.003 0 0 0 25 23 5 255 
-0.184 0.042 -0.004 0 0 0 24 18 1 255 
-0.182 0.043 -0.003 0 0 0 81 76 46 255 
-0.181 0.045 -0.003 0 0 0 79 76 28 255 
-0.179 0.045 -0.003 0 0 0 83 81 29 255 
-0.177 0.046 -0.002 0 0 0 95 96 40 255 
-0.175 0.047 -0.002 0 0 0 100 101 44 255 
-0.174 0.047 -0.002 0 0 0 108 109 52 255 
-0.172 0.046 -0.003 0 0 0 115 117 57 255 
-0.171 0.045 -0.004 0 0 0 113 115 55 255 
-0.169 0.045 -0.004 0 0 0 121 123 61 255 
-0.167 0.045 -0.005 0 0 0 129 131 69 255 
-0.166 0.046 -0.004 0 0 0 125 127 65 255 
-0.164 0.045 -0.005 0 0 0 129 132 68 255 
-0.162 0.047 -0.004 0 0 0 135 138 72 255 
-0.16 0.047 -0.004 0 0 0 135 140 74 255 
-0.159 0.047 -0.004 0 0 0 135 140 74 255 
-0.157 0.047 -0.005 0 0 0 137 142 76 255 
-0.156 0.046 -0.006 0 0 0 139 144 78 255 
-0.154 0.046 -0.006 0 0 0 139 144 78 255 
-0.152 0.046 -0.006 0 0 0 145 150 86 255 
-0.15 0.047 -0.006 0 0 0 144 151 88 255 
-0.149 0.048 -0.005 0 0 0 142 149 89 255 
-0.147 0.049 -0.005 0 0 0 144 151 91 255 
-0.145 0.048 -0.006 0 0 0 142 148 88 255 
-0.144 0.048 -0.006 0 0 0 143 150 87 255 
-0.142 0.048 -0.006 0 0 0 145 152 88 255 
-0.14 0.049 -0.006 0 0 0 148 156 89 255 
-0.138 0.049 -0.006 0 0 0 150 158 90 255 
-0.137 0.049 -0.007 0 0 0 150 158 90 255 
-0.135 0.047 -0.008 0 0 0 149 157 89 255 
-0.133 0.048 -0.008 0 0 0 148 156 88 255 
-0.132 0.048 -0.008 0 0 0 146 154 87 255 
-0.13 0.049 -0.007 0 0 0 148 156 89 255 
-0.128 0.05 -0.007 0 0 0 149 154 88 255 
-0.127 0.05 -0.007 0 0 0 150 155 89 255 
-0.125 0.051 -0.007 0 0 0 148 153 87 255 
-0.123 0.052 -0.007 0 0 0 152 158 90 255 
-0.121 0.052 -0.007 0 0 0 153 159 91 255 
-0.12 0.053 -0.007 0 0 0 148 156 88 255 
-0.118 0.051 -0.008 0 0 0 149 157 89 255 
-0.116 0.052 -0.008 0 0 0 150 158 90 255 
-0.114 0.052 -0.008 0 0 0 145 153 85 255 
-0.113 0.052 -0.008 0 0 0 145 153 86 255 
-0.111 0.051 -0.009 0 0 0 152 160 93 255 
-0.109 0.053 -0.008 0 0 0 148 156 92 255 
-0.108 0.054 -0.008 0 0 0 151 159 95 255 
-0.106 0.056 -0.007 0 0 0 152 161 94 255 
-0.104 0.056 -0.006 0 0 0 153 162 95 255 
-0.102 0.057 -0.006 0 0 0 149 158 91 255 
-0.101 0.057 -0.006 0 0 0 145 154 87 255 
-0.099 0.058 -0.006 0 0 0 144 152 84 255 
-0.097 0.057 -0.007 0 0 0 150 158 90 255 
-0.095 0.059 -0.006 0 0 0 147 156 89 255 
-0.094 0.059 -0.006 0 0 0 146 154 86 255 
-0.092 0.06 -0.006 0 0 0 148 157 90 255 
-0.09 0.06 -0.006 0 0 0 145 153 89 255 
-0.089 0.059 -0.007 0 0 0 149 157 93 255 
-0.087 0.059 -0.007 0 0 0 150 158 95 255 
-0.085 0.059 -0.008 0 0 0 150 158 95 255 
-0.083 0.059 -0.008 0 0 0 145 152 92 255 
-0.082 0.059 -0.009 0 0 0 147 154 91 255 
-0.08 0.06 -0.008 0 0 0 148 155 91 255 
-0.078 0.061 -0.007 0 0 0 150 158 91 255 
-0.076 0.062 -0.007 0 0 0 149 157 90 255 
-0.075 0.063 -0.007 0 0 0 145 152 88 255 
-0.073 0.062 -0.007 0 0 0 146 154 91 255 
-0.071 0.063 -0.007 0 0 0 146 153 93 255 
-0.069 0.063 -0.007 0 0 0 151 158 98 255 
-0.068 0.065 -0.006 0 0 0 150 158 94 255 
-0.066 0.066 -0.006 0 0 0 152 161 94 255 
-0.064 0.065 -0.007 0 0 0 153 161 93 255 
-0.062 0.065 -0.007 0 0 0 152 160 92 255 
-0.061 0.064 -0.008 0 0 0 150 158 91 255 
-0.059 0.065 -0.008 0 0 0 146 154 87 255 
-0.057 0.066 -0.007 0 0 0 150 157 93 255 
-0.056 0.067 -0.007 0 0 0 152 159 95 255 
-0.054 0.068 -0.007 0 0 0 150 157 93 255 
-0.052 0.068 -0.007 0 0 0 152 160 93 255 
-0.05 0.069 -0.007 0 0 0 152 160 92 255 
-0.049 0.069 -0.007 0 0 0 154 162 94 255 
-0.047 0.069 -0.007 0 0 0 154 162 94 255 
-0.045 0.071 -0.006 0 0 0 153 161 93 255 
-0.044 0.071 -0.006 0 0 0 153 161 94 255 
-0.042 0.072 -0.005 0 0 0 151 159 91 255 
-0.04 0.072 -0.006 0 0 0 151 159 91 255 
-0.038 0.072 -0.006 0 0 0 153 161 93 255 
-0.037 0.074 -0.005 0 0 0 150 158 90 255 
-0.035 0.073 -0.006 0 0 0 152 160 92 255 
-0.033 0.072 -0.007 0 0 0 150 158 90 255 
-0.031 0.072 -0.007 0 0 0 153 161 94 255 
-0.03 0.074 -0.007 0 0 0 155 162 98 255 
-0.028 0.073 -0.007 0 0 0 155 162 98 255 
-0.026 0.073 -0.008 0 0 0 158 166 99 255 
-0.024 0.074 -0.007 0 0 0 159 167 103 255 
-0.023 0.075 -0.006 0 0 0 162 170 107 255 
-0.021 0.076 -0.006 0 0 0 161 169 106 255 
-0.019 0.075 -0.008 0 0 0 166 174 110 255 
-0.017 0.074 -0.008 0 0 0 166 174 111 255 
-0.015 0.076 -0.007 0 0 0 163 170 110 255 
-0.014 0.078 -0.006 0 0 0 163 172 114 255 
-0.013 0.08 -0.005 0 0 0 164 173 115 255 
-0.011 0.081 -0.005 0 0 0 164 173 115 255 
-0.009 0.081 -0.005 0 0 0 167 176 118 255 
